3.028146624565124512e-01 -1.148161292076110840e-01 3.556703031063079834e-01
6.902369856834411621e-01 -1.497818678617477417e-01 3.205738961696624756e-01
8.573985695838928223e-01 -7.956265658140182495e-02 -3.686289787292480469e-01
3.678670525550842285e-01 3.221522569656372070e-01 1.819022297859191895e-01
1.210997551679611206e-01 1.753932684659957886e-01 -3.403524458408355713e-01
7.649956941604614258e-01 1.138893961906433105e-01 -3.481847047805786133e-01
2.925502657890319824e-01 2.309242635965347290e-02 -3.953397870063781738e-01
3.629691600799560547e-01 2.439160048961639404e-01 -2.887226045131683350e-01
1.358288377523422241e-01 -2.898198366165161133e-01 2.170063108205795288e-01
2.233422696590423584e-01 -3.071841001510620117e-01 2.055003792047500610e-01
1.648660302162170410e-01 -2.245137095451354980e-01 -3.198354840278625488e-01
5.733913183212280273e-01 -5.857632681727409363e-02 -3.889948427677154541e-01
1.416138410568237305e-01 3.383083939552307129e-01 1.519013345241546631e-01
3.740040063858032227e-01 3.361190482974052429e-02 3.994985222816467285e-01
3.863651156425476074e-01 2.601618170738220215e-01 2.922971844673156738e-01
2.187293469905853271e-01 8.434005081653594971e-02 4.137287437915802002e-01
4.961263835430145264e-01 2.751903533935546875e-01 2.514103949069976807e-01
6.541758775711059570e-01 1.116375476121902466e-01 -3.481611013412475586e-01
1.685232818126678467e-01 9.992828220129013062e-02 3.889634609222412109e-01
5.472611188888549805e-01 -9.961419552564620972e-02 3.602122664451599121e-01
8.211843967437744141e-01 1.793246716260910034e-01 -3.599840104579925537e-01
3.969377875328063965e-01 -1.896826922893524170e-02 -3.754572272300720215e-01
5.038072466850280762e-01 1.612651720643043518e-02 3.666536211967468262e-01
3.493393659591674805e-01 -1.276005506515502930e-01 -3.639337718486785889e-01
3.564705550670623779e-01 -7.030356675386428833e-02 3.822591304779052734e-01
2.713019847869873047e-01 3.584863841533660889e-01 -5.714968591928482056e-02
2.840348482131958008e-01 -2.239733785390853882e-01 -3.102399408817291260e-01
1.489798128604888916e-01 -1.360507458448410034e-01 3.459404408931732178e-01
8.711200952529907227e-01 1.179288923740386963e-01 -3.296959400177001953e-01
1.339323222637176514e-01 4.032979160547256470e-02 3.956090211868286133e-01
4.287827014923095703e-01 -1.964634805917739868e-01 -3.389676213264465332e-01
2.542583346366882324e-01 -8.408253081142902374e-03 -3.803386390209197998e-01
5.699475407600402832e-01 -1.837004125118255615e-01 -3.512721657752990723e-01
6.858030557632446289e-01 -1.025931388139724731e-01 -3.761575818061828613e-01
1.627897024154663086e-01 3.397272229194641113e-01 -1.558921039104461670e-01
8.227867484092712402e-01 -1.014477293938398361e-02 -3.581556975841522217e-01
1.151465401053428650e-01 -4.190011322498321533e-02 3.885966241359710693e-01
6.773176193237304688e-01 -2.835121452808380127e-01 -2.235905379056930542e-01
4.140653014183044434e-01 1.617291718721389771e-01 3.974392414093017578e-01
1.399283111095428467e-01 6.710889935493469238e-02 3.473164141178131104e-01
6.240779161453247070e-01 1.090542599558830261e-01 3.530281484127044678e-01
7.062150835990905762e-01 8.506269007921218872e-02 3.685637414455413818e-01
2.463641166687011719e-01 -2.651540040969848633e-01 -2.915841937065124512e-01
6.176531314849853516e-01 1.179689243435859680e-01 -4.079605937004089355e-01
4.822879135608673096e-01 -2.528754472732543945e-01 -2.881846427917480469e-01
3.729798793792724609e-01 -7.130751013755798340e-02 -3.825619518756866455e-01
1.411867141723632812e-01 1.506595909595489502e-01 3.206208050251007080e-01
1.837417036294937134e-01 3.626599907875061035e-01 8.281032741069793701e-02
6.529207229614257812e-01 -2.325833030045032501e-02 -3.791441917419433594e-01
4.936356544494628906e-01 -8.837587386369705200e-02 3.966190516948699951e-01
4.306542873382568359e-01 1.596540771424770355e-02 -3.968495726585388184e-01
6.084516048431396484e-01 2.224996685981750488e-01 -3.073175549507141113e-01
1.213368177413940430e-01 3.398918211460113525e-01 9.462702274322509766e-02
2.416471689939498901e-01 3.248145580291748047e-01 -1.815816462039947510e-01
3.850282132625579834e-01 9.300028532743453979e-02 3.689247667789459229e-01
4.631093144416809082e-01 9.048161655664443970e-02 -3.797538876533508301e-01
1.244608312845230103e-01 3.575341105461120605e-01 3.857764229178428650e-02
4.647703766822814941e-01 -6.825302541255950928e-02 -3.852329254150390625e-01
4.593727588653564453e-01 -1.453298628330230713e-01 3.382258415222167969e-01
4.278001189231872559e-01 2.917236089706420898e-01 2.233502715826034546e-01
7.232968807220458984e-01 -1.527774035930633545e-01 -3.503187894821166992e-01
1.187248080968856812e-01 1.150705013424158096e-02 -3.711213171482086182e-01
2.462246417999267578e-01 -1.628848761320114136e-01 3.566002249717712402e-01
5.829972028732299805e-01 7.914572954177856445e-03 -3.703404664993286133e-01
7.150468826293945312e-01 1.526413112878799438e-01 -3.392485678195953369e-01
1.966511309146881104e-01 3.022801280021667480e-01 -2.236572802066802979e-01
4.605308771133422852e-01 -2.399379014968872070e-01 2.692742943763732910e-01
3.351870179176330566e-01 -2.674106359481811523e-01 2.412204295396804810e-01
4.952849447727203369e-01 -1.185224354267120361e-01 -4.010999500751495361e-01
4.136235117912292480e-01 3.424460291862487793e-01 -1.095898151397705078e-01
6.022516489028930664e-01 1.570783704519271851e-01 -3.243980705738067627e-01
3.602800965309143066e-01 3.586621880531311035e-01 -5.320477485656738281e-02
4.720673263072967529e-01 1.230899393558502197e-01 -3.376909792423248291e-01
4.714152216911315918e-01 1.995466351509094238e-01 3.400657474994659424e-01
5.399237275123596191e-01 -2.428116202354431152e-01 -3.060319721698760986e-01
1.197926476597785950e-01 1.348896771669387817e-01 -3.192522227764129639e-01
5.420909523963928223e-01 2.382534444332122803e-01 -2.661869823932647705e-01
3.641397953033447266e-01 -1.744139492511749268e-01 -3.714274168014526367e-01
1.460055857896804810e-01 3.088219165802001953e-01 -1.949191093444824219e-01
5.255779623985290527e-01 3.179879784584045410e-01 1.770293712615966797e-01
2.030551284551620483e-01 -4.354900866746902466e-02 -4.117467999458312988e-01
3.606460988521575928e-01 -1.385498344898223877e-01 3.692905306816101074e-01
4.352413415908813477e-01 3.421209454536437988e-01 1.263881027698516846e-01
1.535896509885787964e-01 3.106475770473480225e-01 2.134804427623748779e-01
1.600665599107742310e-01 -4.393070563673973083e-02 -3.875620067119598389e-01
4.793885648250579834e-01 2.681903839111328125e-01 -2.487217634916305542e-01
7.121145129203796387e-01 -7.027380168437957764e-02 -4.337366223335266113e-01
1.461880058050155640e-01 2.657249271869659424e-01 -2.857758700847625732e-01
1.544559299945831299e-01 -1.330906748771667480e-01 3.872537910938262939e-01
2.304584681987762451e-01 1.555246859788894653e-01 -3.234785795211791992e-01
4.504301846027374268e-01 6.382942944765090942e-02 3.835517168045043945e-01
3.022644817829132080e-01 -1.729137450456619263e-01 3.123476207256317139e-01
2.541521191596984863e-01 9.252720326185226440e-02 -3.621792495250701904e-01
2.217245399951934814e-01 -9.294619411230087280e-02 3.946228623390197754e-01
1.217171102762222290e-01 2.749453485012054443e-01 2.383698225021362305e-01
2.330081909894943237e-01 3.710658848285675049e-01 1.425025798380374908e-02
7.597330808639526367e-01 -6.045643985271453857e-02 -3.660657703876495361e-01
6.722259521484375000e-01 2.468386888504028320e-01 -2.740604281425476074e-01
3.476486206054687500e-01 1.650825440883636475e-01 -3.202390670776367188e-01
5.091602206230163574e-01 1.847266778349876404e-02 -4.217930734157562256e-01
3.306161463260650635e-01 -3.195853531360626221e-02 -4.098563194274902344e-01
2.678832113742828369e-01 1.286802887916564941e-01 3.661068975925445557e-01
3.215838670730590820e-01 3.402626514434814453e-01 1.390081048011779785e-01
1.155452355742454529e-01 2.738668918609619141e-01 -2.404388785362243652e-01
8.590327501296997070e-01 -1.649713218212127686e-01 -3.523962497711181641e-01
2.194930613040924072e-01 1.698912084102630615e-01 3.677099943161010742e-01
1.448232233524322510e-01 -1.010343208909034729e-01 -3.798206150531768799e-01
8.499252796173095703e-01 3.904517740011215210e-02 -4.243245124816894531e-01
7.235859632492065430e-01 2.157934606075286865e-01 -2.884799838066101074e-01
3.836352825164794922e-01 1.951463669538497925e-01 3.373952805995941162e-01
3.044406473636627197e-01 2.967647314071655273e-01 -2.004311382770538330e-01
5.552313327789306641e-01 3.003069162368774414e-01 -2.117542475461959839e-01
6.199748516082763672e-01 -8.640737831592559814e-02 -3.641122579574584961e-01
2.687269449234008789e-01 3.281421363353729248e-01 -1.447060406208038330e-01
6.205809116363525391e-01 2.702515721321105957e-01 -2.444070577621459961e-01
2.191077172756195068e-01 -9.272672981023788452e-02 -3.854133188724517822e-01
6.202413439750671387e-01 2.651161849498748779e-01 2.647429108619689941e-01
1.584216654300689697e-01 2.338143736124038696e-01 3.246772289276123047e-01
3.153225183486938477e-01 9.651164710521697998e-02 3.934436440467834473e-01
3.423835635185241699e-01 3.536463081836700439e-01 5.837447196245193481e-02
6.191207766532897949e-01 5.764074623584747314e-02 -3.809842467308044434e-01
3.358862102031707764e-01 2.891623973846435547e-01 2.384984940290451050e-01
6.810749173164367676e-01 2.893354594707489014e-01 -2.088682651519775391e-01
6.956853866577148438e-01 1.678022183477878571e-02 -3.676601052284240723e-01
2.127347588539123535e-01 -3.048884570598602295e-01 -2.398660033941268921e-01
4.212883710861206055e-01 -8.178474009037017822e-02 3.453911840915679932e-01
7.467024922370910645e-01 3.143213391304016113e-01 -1.699282526969909668e-01
1.522493362426757812e-01 3.536935448646545410e-01 -9.172190725803375244e-02
3.234657645225524902e-01 3.424029052257537842e-01 -1.239131838083267212e-01
7.813875675201416016e-01 1.914428174495697021e-01 -3.085030317306518555e-01
1.808654069900512695e-01 -4.799156635999679565e-02 3.678755760192871094e-01
4.017655253410339355e-01 -2.503978908061981201e-01 -2.975029349327087402e-01
8.698890209197998047e-01 2.128464728593826294e-01 -2.804791033267974854e-01
2.012467980384826660e-01 1.002654507756233215e-01 -3.802563548088073730e-01
4.237178266048431396e-01 -1.621858403086662292e-02 3.885680139064788818e-01
2.928330302238464355e-01 1.427642554044723511e-01 -3.615003824234008789e-01
3.234296739101409912e-01 1.060604974627494812e-01 -3.906720876693725586e-01
4.782593846321105957e-01 2.095991820096969604e-01 -3.006124496459960938e-01
6.354279518127441406e-01 -1.573133766651153564e-01 -3.731481134891510010e-01
4.328106343746185303e-01 1.776905059814453125e-01 -3.585928976535797119e-01
1.483676284551620483e-01 1.785362809896469116e-01 3.713724017143249512e-01
4.691488146781921387e-01 1.252301782369613647e-01 3.429818153381347656e-01
6.648914813995361328e-01 -2.005436718463897705e-01 -3.308480978012084961e-01
4.230238199234008789e-01 -2.857699394226074219e-01 -2.347917407751083374e-01
1.339489966630935669e-01 -2.937968969345092773e-01 -1.242954730987548828e-01
8.116637468338012695e-01 7.926568388938903809e-02 -3.601549863815307617e-01
7.220122814178466797e-01 2.020340710878372192e-01 3.194888830184936523e-01
3.639465868473052979e-01 3.172283172607421875e-01 -1.784331500530242920e-01
5.836064815521240234e-01 2.014105767011642456e-01 3.245353698730468750e-01
1.961987465620040894e-01 1.295228749513626099e-01 3.533636927604675293e-01
7.529631853103637695e-01 -2.055707573890686035e-01 -3.340223133563995361e-01
5.301479101181030273e-01 2.380781769752502441e-01 3.158683776855468750e-01
1.928285956382751465e-01 1.972386240959167480e-01 -3.332825899124145508e-01
4.363066852092742920e-01 2.283169478178024292e-01 2.909407615661621094e-01
2.321944832801818848e-01 -4.309381917119026184e-02 3.830273747444152832e-01
8.144912123680114746e-01 -1.341196298599243164e-01 -3.420256972312927246e-01
4.512342810630798340e-01 3.331987261772155762e-01 -1.593857109546661377e-01
4.999360442161560059e-01 3.507626056671142578e-01 -8.871947973966598511e-02
4.105191826820373535e-01 2.854452729225158691e-01 -2.200508415699005127e-01
5.249826908111572266e-01 1.613923162221908569e-01 3.566271066665649414e-01
1.530536413192749023e-01 2.864663302898406982e-01 2.688374221324920654e-01
2.435720115900039673e-01 -1.889840662479400635e-01 -3.675448000431060791e-01
1.263950765132904053e-01 2.137791067361831665e-01 -2.687318623065948486e-01
5.526820421218872070e-01 1.279724389314651489e-01 -3.534289002418518066e-01
2.618957161903381348e-01 1.986897587776184082e-01 -3.502616882324218750e-01
6.783820390701293945e-01 3.456427156925201416e-01 -1.154312938451766968e-01
2.109176516532897949e-01 5.464596301317214966e-02 -4.154730737209320068e-01
2.373152077198028564e-01 2.990410327911376953e-01 2.556762993335723877e-01
1.265939474105834961e-01 1.078022345900535583e-01 -3.693514466285705566e-01
2.438249289989471436e-01 -2.293980419635772705e-01 2.917152345180511475e-01
1.832219511270523071e-01 -1.276282826438546181e-03 4.123396575450897217e-01
5.852688550949096680e-01 -3.684821724891662598e-02 3.578302860260009766e-01
3.391652107238769531e-01 -2.232906520366668701e-01 -3.230921030044555664e-01
1.585738807916641235e-01 2.288912981748580933e-02 -4.059509932994842529e-01
5.939701795578002930e-01 -1.713022142648696899e-01 3.345609605312347412e-01
4.940721988677978516e-01 -2.013041228055953979e-01 -3.426719605922698975e-01
5.660185217857360840e-01 3.368895947933197021e-01 -1.408058702945709229e-01
7.604880332946777344e-01 2.724863588809967041e-03 -3.722755312919616699e-01
1.467536687850952148e-01 -2.708900272846221924e-01 -2.782883048057556152e-01
1.613494753837585449e-01 6.146432831883430481e-02 -3.766616582870483398e-01
2.772063612937927246e-01 -9.509335458278656006e-02 -3.679552972316741943e-01
5.365747809410095215e-01 6.795690208673477173e-02 -3.705240488052368164e-01
1.711698770523071289e-01 -2.670844793319702148e-01 2.780916988849639893e-01
2.265510261058807373e-01 3.515241742134094238e-01 1.405401527881622314e-01
1.349474936723709106e-01 -1.465604901313781738e-01 -2.738518714904785156e-01
1.225642859935760498e-01 3.063913285732269287e-01 -6.804824620485305786e-02
3.974741101264953613e-01 2.033689767122268677e-01 -3.112744688987731934e-01
1.872568130493164062e-01 -1.959496289491653442e-01 3.340162336826324463e-01
3.254360258579254150e-01 -2.685531079769134521e-01 -2.616096138954162598e-01
8.238362073898315430e-01 3.109607696533203125e-01 -1.518586724996566772e-01
1.475738286972045898e-01 -1.820254027843475342e-01 -3.565183281898498535e-01
3.311561644077301025e-01 2.282937765121459961e-01 3.115609884262084961e-01
1.215573400259017944e-01 2.045575082302093506e-01 3.030666112899780273e-01
6.125872135162353516e-01 -2.264412343502044678e-01 -3.155186772346496582e-01
1.375759541988372803e-01 -3.388127684593200684e-02 -3.293606340885162354e-01
1.219640225172042847e-01 -1.330269873142242432e-01 -3.424401283264160156e-01
1.882543414831161499e-01 -1.441334635019302368e-01 -3.960108160972595215e-01
6.057394742965698242e-01 -2.652103900909423828e-01 -2.725022733211517334e-01
2.067829966545104980e-01 -2.250116169452667236e-01 -3.400144279003143311e-01
2.069714367389678955e-01 3.313360214233398438e-01 1.990315318107604980e-01
3.136795759201049805e-01 2.765176594257354736e-01 -2.489568293094635010e-01
1.288634538650512695e-01 -7.907451689243316650e-02 3.396677672863006592e-01
5.870261192321777344e-01 -3.065111041069030762e-01 -1.865074038505554199e-02
7.104701399803161621e-01 -3.099812567234039307e-01 1.063335221260786057e-02
6.589885950088500977e-01 -3.042175769805908203e-01 1.071733683347702026e-01
5.883206725120544434e-01 -2.843776345252990723e-01 1.341823190450668335e-01
4.260388016700744629e-01 -3.263129889965057373e-01 2.228891476988792419e-02
4.017775654792785645e-01 -3.096783757209777832e-01 1.328234970569610596e-01
3.036157786846160889e-01 -3.371527194976806641e-01 -1.768677309155464172e-02
3.038485944271087646e-01 -3.259164690971374512e-01 1.424968987703323364e-01
1.627638638019561768e-01 -3.761115372180938721e-01 -1.569752581417560577e-03
2.129251956939697266e-01 -3.448823094367980957e-01 1.709728837013244629e-01
1.619277745485305786e-01 -3.581978380680084229e-01 1.164428424090147018e-02
2.146890163421630859e-01 -3.208925426006317139e-01 2.378596365451812744e-01
2.159285545349121094e-01 -3.148442804813385010e-01 5.775283090770244598e-03
2.345138341188430786e-01 -2.561639845371246338e-01 3.365793526172637939e-01
2.644638419151306152e-01 -2.178266197443008423e-01 -1.262019574642181396e-01
2.675763964653015137e-01 4.253546148538589478e-02 3.528955876827239990e-01
2.495574951171875000e-01 1.677969992160797119e-01 -1.347315162420272827e-01
2.415793687105178833e-01 2.635939419269561768e-01 2.576273381710052490e-01
2.929051518440246582e-01 2.384439706802368164e-01 -2.642680406570434570e-01
3.422034978866577148e-01 2.555538713932037354e-01 1.673049479722976685e-01
3.581928014755249023e-01 2.834301292896270752e-01 -7.759348303079605103e-02
3.974027037620544434e-01 2.904525697231292725e-01 1.461512297391891479e-01
4.445295333862304688e-01 2.242757976055145264e-01 -1.483562588691711426e-01
5.079360604286193848e-01 2.103472352027893066e-01 1.390603184700012207e-01
4.998089671134948730e-01 2.476524710655212402e-01 -4.892597720026969910e-02
5.864915847778320312e-01 2.422505915164947510e-01 1.128237247467041016e-01
6.442742943763732910e-01 2.195063233375549316e-01 -1.243334114551544189e-01
7.034811377525329590e-01 2.171640396118164062e-01 9.081200510263442993e-02
6.117165088653564453e-01 2.659941017627716064e-01 -3.001759573817253113e-02
7.524155974388122559e-01 2.457240223884582520e-01 8.943600952625274658e-02
7.751027941703796387e-01 2.724086940288543701e-01 -2.669089660048484802e-02
6.972598433494567871e-01 2.515257894992828369e-01 -6.385734677314758301e-02
5.489131212234497070e-01 -3.425690531730651855e-01 -1.136846188455820084e-02
6.116610169410705566e-01 -3.287175893783569336e-01 4.346203804016113281e-02
6.455554366111755371e-01 -3.063198626041412354e-01 -5.885123088955879211e-02
5.061725974082946777e-01 -3.221710026264190674e-01 1.279405783861875534e-02
4.628726840019226074e-01 -2.909434139728546143e-01 -8.741429448127746582e-02
2.502472698688507080e-01 -3.458096981048583984e-01 5.983317643404006958e-02
1.923073828220367432e-01 -3.441230356693267822e-01 -1.577230170369148254e-02
1.827364861965179443e-01 -3.651925623416900635e-01 3.592635318636894226e-02
1.270102411508560181e-01 -3.444291055202484131e-01 -3.271302580833435059e-02
1.067702323198318481e-01 -3.661663234233856201e-01 3.524677082896232605e-02
1.091686040163040161e-01 -3.361750245094299316e-01 -4.324610903859138489e-02
1.068224385380744934e-01 -3.423548638820648193e-01 3.304879739880561829e-02
1.413657069206237793e-01 -3.237423598766326904e-01 -8.670733869075775146e-02
1.885515749454498291e-01 -3.263814151287078857e-01 7.424919307231903076e-02
2.328571528196334839e-01 -3.374068439006805420e-01 -8.430291712284088135e-02
2.794865369796752930e-01 -3.240743577480316162e-01 1.093370020389556885e-01
3.252292871475219727e-01 -3.152033984661102295e-01 -1.510252803564071655e-01
3.374906182289123535e-01 -2.385938018560409546e-01 2.289526164531707764e-01
3.944402337074279785e-01 -3.247720301151275635e-01 -8.556336164474487305e-02
4.509431719779968262e-01 -2.663586735725402832e-01 1.583440005779266357e-01
4.625803828239440918e-01 -3.112175762653350830e-01 -1.767466664314270020e-01
4.828013181686401367e-01 -2.215069234371185303e-01 2.385824918746948242e-01
5.281835198402404785e-01 -3.230877816677093506e-01 5.424711853265762329e-03
5.940511822700500488e-01 -2.270993739366531372e-01 1.732209622859954834e-01
6.653634905815124512e-01 -2.936058938503265381e-01 -1.141245067119598389e-01
7.180732488632202148e-01 -1.937102675437927246e-01 2.392395287752151489e-01
7.613562941551208496e-01 -2.830920815467834473e-01 9.543035924434661865e-02
8.108318448066711426e-01 -1.676810532808303833e-01 1.992912143468856812e-01
8.904978632926940918e-01 -2.583211362361907959e-01 -3.768843412399291992e-02
8.712719678878784180e-01 -6.680362671613693237e-02 2.847369015216827393e-01
9.117830395698547363e-01 -1.419956088066101074e-01 1.456836909055709839e-01
8.239653706550598145e-01 5.977044254541397095e-02 2.644605636596679688e-01
4.711192846298217773e-01 -3.428127765655517578e-01 5.178474262356758118e-02
5.329884886741638184e-01 -3.387692868709564209e-01 7.240140438079833984e-02
4.582235217094421387e-01 -3.282020986080169678e-01 -2.265802398324012756e-02
4.638685584068298340e-01 -3.104678094387054443e-01 1.184445172548294067e-01
3.467629551887512207e-01 -3.035320043563842773e-01 -8.183431625366210938e-02
3.606443405151367188e-01 -3.173504769802093506e-01 6.945243477821350098e-02
2.278503030538558960e-01 -3.135642409324645996e-01 -8.707185089588165283e-02
2.509502172470092773e-01 -3.333913981914520264e-01 7.538387179374694824e-02
1.439512819051742554e-01 -3.386295139789581299e-01 -1.056775823235511780e-01
2.070772051811218262e-01 -3.418378531932830811e-01 8.585754036903381348e-02
1.523206681013107300e-01 -3.217562437057495117e-01 -1.410056054592132568e-01
2.474277913570404053e-01 -2.993625402450561523e-01 1.615621000528335571e-01
1.830532848834991455e-01 -2.774512469768524170e-01 -2.552492022514343262e-01
2.808741331100463867e-01 -2.884114086627960205e-01 2.132054120302200317e-01
2.008676379919052124e-01 -8.765018731355667114e-02 -3.476310372352600098e-01
2.597755193710327148e-01 1.965925246477127075e-01 3.404984474182128906e-01
1.943729817867279053e-01 1.674606800079345703e-01 -3.051182627677917480e-01
2.293226718902587891e-01 3.233703076839447021e-01 5.432518944144248962e-02
1.937404125928878784e-01 2.332981228828430176e-01 -2.396350055932998657e-01
2.216679304838180542e-01 3.437899053096771240e-01 1.254063248634338379e-01
2.379001677036285400e-01 2.812468111515045166e-01 -1.363129168748855591e-01
3.364045023918151855e-01 2.999465167522430420e-01 2.516761049628257751e-02
3.530920445919036865e-01 2.381044924259185791e-01 -1.566105782985687256e-01
4.154704213142395020e-01 2.893326878547668457e-01 6.086428463459014893e-02
3.970087766647338867e-01 2.739211916923522949e-01 -6.109280511736869812e-02
4.982565045356750488e-01 2.827596366405487061e-01 4.213006049394607544e-02
5.101578235626220703e-01 2.290229052305221558e-01 -9.164176881313323975e-02
5.830904841423034668e-01 2.632229030132293701e-01 8.639197796583175659e-02
5.587353110313415527e-01 2.844349741935729980e-01 -3.230749443173408508e-02
6.952983736991882324e-01 2.747285962104797363e-01 1.440446358174085617e-02
6.030161976814270020e-01 2.768974602222442627e-01 -1.099577695131301880e-01
7.150692343711853027e-01 2.526558935642242432e-01 -1.172464862465858459e-01
3.840991258621215820e-01 -3.480804264545440674e-01 -1.182882394641637802e-02
3.638728857040405273e-01 -3.451878130435943604e-01 9.531708061695098877e-02
3.404591083526611328e-01 -3.438294529914855957e-01 -3.537509962916374207e-02
3.000702261924743652e-01 -3.460887372493743896e-01 2.745504304766654968e-02
2.366604804992675781e-01 -3.442286550998687744e-01 -7.861657440662384033e-02
1.804336011409759521e-01 -3.621229231357574463e-01 8.994290232658386230e-02
1.599026769399642944e-01 -3.432327210903167725e-01 -8.953891694545745850e-02
1.281714886426925659e-01 -3.691480457782745361e-01 8.692710846662521362e-02
1.403197348117828369e-01 -3.175276815891265869e-01 -1.637112051248550415e-01
1.098335236310958862e-01 -3.606230318546295166e-01 1.284127831459045410e-01
9.989374130964279175e-02 -2.952738702297210693e-01 -1.795721054077148438e-01
1.080365851521492004e-01 -3.235208392143249512e-01 1.379677951335906982e-01
1.015883311629295349e-01 -2.722707986831665039e-01 -2.518034577369689941e-01
1.548620909452438354e-01 -2.948818504810333252e-01 2.198386043310165405e-01
1.667576283216476440e-01 -2.548432648181915283e-01 -2.794291377067565918e-01
2.481586337089538574e-01 -2.621965706348419189e-01 2.219340503215789795e-01
2.412436455488204956e-01 -2.391223013401031494e-01 -2.306722402572631836e-01
2.573164701461791992e-01 -1.484297215938568115e-01 3.025496602058410645e-01
2.763662934303283691e-01 -2.913908660411834717e-01 -1.604400873184204102e-01
3.715569078922271729e-01 -1.668738722801208496e-01 2.891961634159088135e-01
4.331616759300231934e-01 -2.751070559024810791e-01 -2.031281590461730957e-01
4.234377741813659668e-01 -1.104926168918609619e-01 2.616300284862518311e-01
4.608174562454223633e-01 -3.158953487873077393e-01 -1.298105567693710327e-01
5.277716517448425293e-01 -1.115065589547157288e-01 2.659195661544799805e-01
5.852107405662536621e-01 -2.505995929241180420e-01 -1.951492428779602051e-01
6.557826399803161621e-01 -1.034284755587577820e-01 2.274284362792968750e-01
6.911842226982116699e-01 -2.952949106693267822e-01 -1.375382486730813980e-02
7.905885577201843262e-01 -1.120209991931915283e-01 2.357827126979827881e-01
8.008006811141967773e-01 -2.306812107563018799e-01 -8.997534960508346558e-02
7.647358775138854980e-01 5.530048161745071411e-02 3.135595321655273438e-01
9.100858569145202637e-01 -8.582661300897598267e-02 -3.337421454489231110e-03
9.087048172950744629e-01 7.088643312454223633e-02 2.641575336456298828e-01
2.475120723247528076e-01 -3.601472675800323486e-01 4.880369827151298523e-02
2.986174225807189941e-01 -3.572633564472198486e-01 1.098885387182235718e-01
2.205286026000976562e-01 -3.574404120445251465e-01 -2.248669043183326721e-04
2.007586807012557983e-01 -3.517437875270843506e-01 1.515545248985290527e-01
1.682094633579254150e-01 -3.497604131698608398e-01 -4.788015037775039673e-02
1.453440785408020020e-01 -3.500467240810394287e-01 1.627845317125320435e-01
1.305864155292510986e-01 -3.269705474376678467e-01 -1.090615838766098022e-01
1.180361509323120117e-01 -3.267085850238800049e-01 2.039803564548492432e-01
1.050344258546829224e-01 -2.955084443092346191e-01 -1.320621818304061890e-01
1.185453012585639954e-01 -2.990240156650543213e-01 2.098459750413894653e-01
1.290167570114135742e-01 -2.735262215137481689e-01 -2.001987397670745850e-01
1.485157012939453125e-01 -2.431323975324630737e-01 2.298854887485504150e-01
1.641216576099395752e-01 -1.864743232727050781e-01 -2.985822558403015137e-01
2.233402132987976074e-01 -1.086352542042732239e-01 1.939011663198471069e-01
2.307570576667785645e-01 4.576732590794563293e-02 -3.262151479721069336e-01
2.388190627098083496e-01 2.162701338529586792e-01 1.905899643898010254e-01
1.929587274789810181e-01 2.432815730571746826e-01 -2.311726659536361694e-01
1.663455367088317871e-01 3.214017450809478760e-01 1.165836080908775330e-01
1.392973810434341431e-01 2.681834995746612549e-01 -2.062396407127380371e-01
1.383722424507141113e-01 3.462662398815155029e-01 -8.041160181164741516e-04
1.365537941455841064e-01 2.977587282657623291e-01 -1.015606224536895752e-01
1.798339486122131348e-01 3.409998714923858643e-01 7.472477853298187256e-02
2.235587239265441895e-01 2.899016439914703369e-01 -1.043307930231094360e-01
2.263291180133819580e-01 3.045303821563720703e-01 2.443526312708854675e-02
2.602382302284240723e-01 2.869909703731536865e-01 -2.431648597121238708e-02
3.292037844657897949e-01 2.892454564571380615e-01 6.186391040682792664e-02
3.457925915718078613e-01 2.768393456935882568e-01 -4.543063417077064514e-02
3.882560729980468750e-01 2.916504442691802979e-01 8.824221789836883545e-02
4.142588376998901367e-01 3.040173351764678955e-01 3.048027865588665009e-03
5.535283684730529785e-01 2.980986833572387695e-01 8.370853215456008911e-02
5.873535275459289551e-01 2.875618040561676025e-01 3.131654486060142517e-02
7.840161323547363281e-01 2.304500639438629150e-01 -3.822709619998931885e-02
3.147050738334655762e-01 -3.640642464160919189e-01 1.426745485514402390e-02
2.582250237464904785e-01 -3.511945307254791260e-01 1.507678925991058350e-01
2.780674993991851807e-01 -3.559783101081848145e-01 -4.130175337195396423e-02
2.261032462120056152e-01 -3.567920625209808350e-01 9.510038793087005615e-02
2.504703104496002197e-01 -3.352146446704864502e-01 -1.124182045459747314e-01
2.130861431360244751e-01 -3.363108932971954346e-01 1.996430754661560059e-01
2.024156451225280762e-01 -3.191296458244323730e-01 -1.370099782943725586e-01
1.704321056604385376e-01 -3.212529718875885010e-01 2.124585807323455811e-01
1.762266904115676880e-01 -2.958396077156066895e-01 -1.984342932701110840e-01
1.304740160703659058e-01 -2.960538268089294434e-01 2.549323737621307373e-01
1.449709534645080566e-01 -2.675573527812957764e-01 -2.354126572608947754e-01
1.267482489347457886e-01 -2.546699047088623047e-01 2.784974575042724609e-01
1.346609443426132202e-01 -2.263390272855758667e-01 -2.914935648441314697e-01
1.364447623491287231e-01 -2.070560455322265625e-01 3.078488409519195557e-01
1.332420110702514648e-01 -2.078266590833663940e-01 -3.311989307403564453e-01
1.316955089569091797e-01 -1.512014418840408325e-01 3.150207102298736572e-01
1.304066926240921021e-01 -1.472906768321990967e-01 -3.487092554569244385e-01
1.482712924480438232e-01 -7.445887476205825806e-02 3.264475464820861816e-01
2.352007776498794556e-01 -1.764246672391891479e-01 -3.314315080642700195e-01
2.407141327857971191e-01 -3.060574643313884735e-03 3.288681507110595703e-01
3.487506806850433350e-01 -9.966054558753967285e-02 -3.345769047737121582e-01
3.202104568481445312e-01 -1.057089399546384811e-02 3.398993015289306641e-01
3.228514790534973145e-01 -2.234788835048675537e-01 -2.612532377243041992e-01
3.903146386146545410e-01 3.245193511247634888e-02 3.027601838111877441e-01
3.853302001953125000e-01 -8.390126377344131470e-02 -2.702122926712036133e-01
5.005937814712524414e-01 3.286355175077915192e-03 2.898192405700683594e-01
4.965470433235168457e-01 -2.682318389415740967e-01 -6.561274081468582153e-02
6.487087607383728027e-01 -7.187395356595516205e-03 2.621040940284729004e-01
7.512964010238647461e-01 -2.303413599729537964e-01 1.193589121103286743e-01
7.717929482460021973e-01 1.869908571243286133e-01 2.532850205898284912e-01
9.466604590415954590e-01 -5.078644305467605591e-02 1.103995442390441895e-01
8.484253287315368652e-01 1.664246916770935059e-01 2.743775248527526855e-01
3.776506185531616211e-01 -3.604306578636169434e-01 5.448306724429130554e-02
3.473805785179138184e-01 -3.501385450363159180e-01 1.464262008666992188e-01
3.672268986701965332e-01 -3.406812250614166260e-01 -8.420850336551666260e-02
3.048670589923858643e-01 -3.299812376499176025e-01 1.863734573125839233e-01
3.162286281585693359e-01 -3.276324272155761719e-01 -1.105489134788513184e-01
2.585087418556213379e-01 -3.089193999767303467e-01 2.209246307611465454e-01
2.696520686149597168e-01 -3.114947080612182617e-01 -1.665471494197845459e-01
2.295742928981781006e-01 -2.786285281181335449e-01 2.693396806716918945e-01
2.420110255479812622e-01 -2.703376710414886475e-01 -1.969386786222457886e-01
2.171444594860076904e-01 -2.427655756473541260e-01 2.863408327102661133e-01
2.214785367250442505e-01 -2.461834549903869629e-01 -2.564672827720642090e-01
1.888176500797271729e-01 -1.711449474096298218e-01 3.303120136260986328e-01
1.941568553447723389e-01 -1.363630443811416626e-01 -3.476205170154571533e-01
1.527634561061859131e-01 -1.493280287832021713e-02 3.740275204181671143e-01
1.563925445079803467e-01 4.826273769140243530e-02 -3.655359148979187012e-01
1.445694714784622192e-01 1.325945556163787842e-01 3.286501765251159668e-01
1.526640057563781738e-01 1.484958529472351074e-01 -3.156592845916748047e-01
1.547650843858718872e-01 2.319489866495132446e-01 2.483026981353759766e-01
1.574207544326782227e-01 1.861081570386886597e-01 -2.752220332622528076e-01
1.381434053182601929e-01 2.893376052379608154e-01 2.045011967420578003e-01
1.654953956604003906e-01 2.365835607051849365e-01 -2.348482459783554077e-01
1.979387551546096802e-01 3.071866631507873535e-01 1.295001357793807983e-01
2.046324610710144043e-01 2.743221223354339600e-01 -1.762080043554306030e-01
2.216017842292785645e-01 3.120378851890563965e-01 8.365170657634735107e-02
2.170482277870178223e-01 2.947779297828674316e-01 -9.997114539146423340e-02
2.115930765867233276e-01 3.430117666721343994e-01 5.638030916452407837e-02
2.088987231254577637e-01 3.559600710868835449e-01 -3.623465076088905334e-02
1.894641071557998657e-01 3.628549575805664062e-01 1.194252148270606995e-01
2.614356875419616699e-01 3.999381363391876221e-01 6.551623344421386719e-02
4.141348600387573242e-01 3.386872708797454834e-01 6.587380170822143555e-02
4.784247279167175293e-01 3.275373280048370361e-01 -7.886058092117309570e-02
6.855554580688476562e-01 2.715770304203033447e-01 -4.009957611560821533e-02
4.409415721893310547e-01 -3.637986481189727783e-01 1.749401539564132690e-02
4.125518798828125000e-01 -3.452669680118560791e-01 1.582454890012741089e-01
4.529128670692443848e-01 -3.488171696662902832e-01 -5.019827187061309814e-02
4.296848773956298828e-01 -3.533995449542999268e-01 1.000825911760330200e-01
4.181376695632934570e-01 -3.301760256290435791e-01 -1.126526296138763428e-01
3.749446272850036621e-01 -3.167711198329925537e-01 1.985492557287216187e-01
3.531206250190734863e-01 -3.126070201396942139e-01 -1.381117999553680420e-01
3.306277990341186523e-01 -2.923969328403472900e-01 2.353980988264083862e-01
3.408719301223754883e-01 -2.848329246044158936e-01 -2.019148468971252441e-01
3.179234266281127930e-01 -2.545042037963867188e-01 2.810165584087371826e-01
3.180207014083862305e-01 -2.433350831270217896e-01 -2.204529941082000732e-01
3.146771788597106934e-01 -1.974224150180816650e-01 3.083055019378662109e-01
3.078404068946838379e-01 -1.886045485734939575e-01 -2.594069242477416992e-01
2.702341675758361816e-01 -1.532564610242843628e-01 3.197845816612243652e-01
2.494946569204330444e-01 -1.381093561649322510e-01 -3.138192594051361084e-01
2.299055159091949463e-01 -7.157368212938308716e-02 3.307468593120574951e-01
2.251525074243545532e-01 -3.882783278822898865e-02 -3.340628743171691895e-01
2.236631810665130615e-01 3.245600312948226929e-02 3.420813083648681641e-01
3.796441555023193359e-01 -5.273967981338500977e-02 -3.416226804256439209e-01
3.418651223182678223e-01 1.067194417119026184e-01 3.317749798297882080e-01
3.669651746749877930e-01 3.217338025569915771e-02 -3.506337702274322510e-01
3.314508199691772461e-01 1.771857142448425293e-01 2.744199633598327637e-01
4.196445941925048828e-01 4.777365177869796753e-02 -3.489185571670532227e-01
3.864958286285400391e-01 2.086157500743865967e-01 1.902287006378173828e-01
4.158664941787719727e-01 1.753225475549697876e-01 -2.939342856407165527e-01
3.235054314136505127e-01 3.018184900283813477e-01 9.218074381351470947e-02
4.815356731414794922e-01 1.856266558170318604e-01 -2.755061089992523193e-01
4.638420343399047852e-01 2.496159374713897705e-01 6.244355812668800354e-02
6.055638194084167480e-01 2.137198448181152344e-01 -2.075121551752090454e-01
6.502246260643005371e-01 3.061592876911163330e-01 1.530297994613647461e-01
9.486055970191955566e-01 1.042004153132438660e-01 2.449370175600051880e-02
8.771246075630187988e-01 2.206470966339111328e-01 1.526583880186080933e-01
4.825706481933593750e-01 -3.622149825096130371e-01 4.477451369166374207e-02
4.825307726860046387e-01 -3.489141166210174561e-01 1.231178864836692810e-01
5.206290483474731445e-01 -3.451716601848602295e-01 -6.778651475906372070e-02
4.647086262702941895e-01 -3.232368528842926025e-01 1.838974058628082275e-01
4.891312122344970703e-01 -3.355741798877716064e-01 -1.061416268348693848e-01
4.244468808174133301e-01 -2.902847826480865479e-01 2.325658202171325684e-01
4.410102367401123047e-01 -3.153614103794097900e-01 -1.608822047710418701e-01
3.950052261352539062e-01 -2.619787156581878662e-01 2.790385782718658447e-01
4.134130477905273438e-01 -2.744576930999755859e-01 -1.902070939540863037e-01
3.797461986541748047e-01 -2.160191386938095093e-01 2.918352782726287842e-01
4.055519104003906250e-01 -2.220133543014526367e-01 -2.310617566108703613e-01
3.684231936931610107e-01 -1.445512473583221436e-01 3.075169622898101807e-01
3.641955852508544922e-01 -1.436848342418670654e-01 -2.938155531883239746e-01
2.982994914054870605e-01 -3.976357728242874146e-02 3.540773987770080566e-01
3.111898303031921387e-01 3.590981476008892059e-03 -3.412347733974456787e-01
2.482261657714843750e-01 8.560851961374282837e-02 3.474077880382537842e-01
2.565176486968994141e-01 9.765567630529403687e-02 -3.196156024932861328e-01
2.088227570056915283e-01 2.017590254545211792e-01 2.690753936767578125e-01
3.034853339195251465e-01 1.683565080165863037e-01 -2.507770061492919922e-01
2.522099614143371582e-01 2.694134414196014404e-01 2.090864926576614380e-01
3.129189610481262207e-01 2.286509126424789429e-01 -2.142049074172973633e-01
3.079756796360015869e-01 3.076579570770263672e-01 1.446383893489837646e-01
3.681507706642150879e-01 2.622888386249542236e-01 -1.673653721809387207e-01
3.051906824111938477e-01 3.571248352527618408e-01 1.362623274326324463e-01
3.185001313686370850e-01 3.321876227855682373e-01 -1.086046993732452393e-01
2.458412349224090576e-01 4.297595322132110596e-01 2.269919365644454956e-01
2.375694811344146729e-01 4.192549884319305420e-01 -4.251275956630706787e-02
1.840924918651580811e-01 4.823182225227355957e-01 2.032460123300552368e-01
2.389470934867858887e-01 5.238053798675537109e-01 8.318467438220977783e-02
2.749437093734741211e-01 4.766195714473724365e-01 1.811425089836120605e-01
4.272813200950622559e-01 4.930627644062042236e-01 8.935854583978652954e-02
5.901375412940979004e-01 3.595598638057708740e-01 3.790695965290069580e-02
5.351638793945312500e-01 -3.655857443809509277e-01 5.540754646062850952e-03
5.344732403755187988e-01 -3.447107672691345215e-01 1.588094830513000488e-01
5.964179635047912598e-01 -3.511300384998321533e-01 -4.373894259333610535e-02
5.491134524345397949e-01 -3.512019813060760498e-01 9.228918701410293579e-02
5.674753785133361816e-01 -3.371316194534301758e-01 -1.055354401469230652e-01
5.123897790908813477e-01 -3.111553490161895752e-01 2.131083309650421143e-01
5.281934738159179688e-01 -3.196621537208557129e-01 -1.426931023597717285e-01
4.811592102050781250e-01 -2.737948596477508545e-01 2.514020204544067383e-01
5.091983079910278320e-01 -2.953938245773315430e-01 -1.881653964519500732e-01
4.517657160758972168e-01 -2.412524968385696411e-01 3.037028014659881592e-01
4.903714060783386230e-01 -2.555366456508636475e-01 -1.913998574018478394e-01
4.471374750137329102e-01 -1.760488450527191162e-01 3.131255507469177246e-01
4.722563028335571289e-01 -2.104958891868591309e-01 -2.300357222557067871e-01
3.973010778427124023e-01 -1.145621836185455322e-01 3.349912166595458984e-01
4.278738498687744141e-01 -1.603954434394836426e-01 -2.594062089920043945e-01
3.843249082565307617e-01 -4.883892834186553955e-02 3.216208517551422119e-01
3.859214782714843750e-01 -8.404938876628875732e-02 -3.218221962451934814e-01
3.587364554405212402e-01 4.074335470795631409e-02 3.255441784858703613e-01
5.065984725952148438e-01 -8.934389054775238037e-02 -3.221167922019958496e-01
5.036923289299011230e-01 1.241595670580863953e-01 2.814852595329284668e-01
5.561169981956481934e-01 3.066179901361465454e-02 -3.349325954914093018e-01
5.159146785736083984e-01 2.207071781158447266e-01 2.336340099573135376e-01
5.732106566429138184e-01 6.942572444677352905e-02 -2.947135567665100098e-01
5.464475154876708984e-01 2.933229207992553711e-01 1.858983039855957031e-01
5.544320344924926758e-01 2.072040885686874390e-01 -2.588119506835937500e-01
4.288353323936462402e-01 3.390342295169830322e-01 9.564127027988433838e-02
6.235879063606262207e-01 1.795792132616043091e-01 -2.852818965911865234e-01
4.118034243583679199e-01 3.606465756893157959e-01 8.503651618957519531e-02
7.251248955726623535e-01 2.500190436840057373e-01 -9.623559564352035522e-02
6.635566353797912598e-01 3.426259756088256836e-01 1.045663282275199890e-01
9.861039519309997559e-01 1.964396834373474121e-01 9.164115786552429199e-02
8.150200247764587402e-01 2.697373926639556885e-01 1.573245227336883545e-01
6.013503074645996094e-01 -3.630013167858123779e-01 3.250050917267799377e-02
5.948599576950073242e-01 -3.493158817291259766e-01 1.110007539391517639e-01
6.573851704597473145e-01 -3.440907597541809082e-01 -7.900358736515045166e-02
5.782310366630554199e-01 -3.215864002704620361e-01 1.857069134712219238e-01
6.180440783500671387e-01 -3.313764929771423340e-01 -1.133218780159950256e-01
5.541467070579528809e-01 -2.811813652515411377e-01 2.306894212961196899e-01
5.833148360252380371e-01 -3.090473711490631104e-01 -1.743018925189971924e-01
5.204341411590576172e-01 -2.483596205711364746e-01 2.805524170398712158e-01
5.588702559471130371e-01 -2.657942175865173340e-01 -2.183552980422973633e-01
5.048732161521911621e-01 -1.839365214109420776e-01 2.984517216682434082e-01
5.391233563423156738e-01 -1.882038116455078125e-01 -2.454031109809875488e-01
4.875276088714599609e-01 -1.110030934214591980e-01 3.161312043666839600e-01
5.170523524284362793e-01 -1.120936945080757141e-01 -3.070421516895294189e-01
4.576268196105957031e-01 -2.935784682631492615e-02 3.462419509887695312e-01
4.969234466552734375e-01 -1.614686846733093262e-02 -3.213478326797485352e-01
4.042679667472839355e-01 5.806200951337814331e-02 3.588908910751342773e-01
4.166272878646850586e-01 9.229717403650283813e-02 -3.251119256019592285e-01
3.875344991683959961e-01 1.785902976989746094e-01 2.851871550083160400e-01
4.899145960807800293e-01 1.517161428928375244e-01 -2.877608537673950195e-01
4.326307177543640137e-01 2.765344977378845215e-01 1.959466487169265747e-01
4.659287929534912109e-01 2.379817068576812744e-01 -2.338835895061492920e-01
4.815406799316406250e-01 3.195504248142242432e-01 1.358843743801116943e-01
5.830618739128112793e-01 2.569645941257476807e-01 -2.045385539531707764e-01
5.315453410148620605e-01 3.607364296913146973e-01 1.084307059645652771e-01
5.516614317893981934e-01 3.178162276744842529e-01 -1.656130850315093994e-01
3.479624986648559570e-01 4.849449694156646729e-01 2.717540562152862549e-01
3.778189420700073242e-01 4.849790632724761963e-01 -8.239927142858505249e-02
3.123258352279663086e-01 5.851296782493591309e-01 2.177841961383819580e-01
3.762546777725219727e-01 5.951312780380249023e-01 5.480180308222770691e-02
3.495945334434509277e-01 5.728756785392761230e-01 2.556076049804687500e-01
4.915535449981689453e-01 5.992711186408996582e-01 7.022681832313537598e-02
6.157793998718261719e-01 4.409801065921783447e-01 9.886364638805389404e-02
6.483098864555358887e-01 -3.633528947830200195e-01 -4.435404203832149506e-03
6.273993849754333496e-01 -3.467665612697601318e-01 1.561688184738159180e-01
6.944954991340637207e-01 -3.551388084888458252e-01 -4.387958347797393799e-02
6.405023336410522461e-01 -3.586633503437042236e-01 8.351252973079681396e-02
6.879588961601257324e-01 -3.313218653202056885e-01 -1.362977921962738037e-01
6.108544468879699707e-01 -3.038045465946197510e-01 2.241511791944503784e-01
6.314454674720764160e-01 -3.164648711681365967e-01 -1.590046286582946777e-01
5.847033262252807617e-01 -2.627965509891510010e-01 2.623683214187622070e-01
6.539681553840637207e-01 -2.784535884857177734e-01 -2.259132266044616699e-01
5.639780163764953613e-01 -2.197225093841552734e-01 3.151870369911193848e-01
6.220164895057678223e-01 -2.609622478485107422e-01 -1.777757704257965088e-01
5.505065917968750000e-01 -1.517899185419082642e-01 3.325262069702148438e-01
6.204538345336914062e-01 -1.899767816066741943e-01 -2.527663707733154297e-01
5.259878039360046387e-01 -8.511608839035034180e-02 3.437669873237609863e-01
6.021137237548828125e-01 -1.842083483934402466e-01 -2.277105748653411865e-01
5.095966458320617676e-01 -2.010415121912956238e-02 3.389674425125122070e-01
5.653395652770996094e-01 -1.124656125903129578e-01 -2.907236516475677490e-01
4.937660098075866699e-01 5.281177908182144165e-02 3.144481480121612549e-01
6.657564043998718262e-01 -1.069393232464790344e-01 -2.825081646442413330e-01
5.383818745613098145e-01 1.376593858003616333e-01 2.739061713218688965e-01
6.406977772712707520e-01 1.270553749054670334e-02 -3.226630091667175293e-01
5.510884523391723633e-01 2.452872991561889648e-01 2.066994160413742065e-01
7.222850918769836426e-01 7.384143024682998657e-02 -3.277384340763092041e-01
6.505212187767028809e-01 2.921126186847686768e-01 1.460705697536468506e-01
7.457680106163024902e-01 1.937808394432067871e-01 -2.773072719573974609e-01
6.553327441215515137e-01 3.177099525928497314e-01 3.334616497159004211e-02
7.765710949897766113e-01 2.118187248706817627e-01 -2.504064440727233887e-01
6.255805492401123047e-01 2.519127428531646729e-01 6.728244572877883911e-02
7.992474436759948730e-01 2.755801081657409668e-01 -1.255046725273132324e-01
6.567339301109313965e-01 4.042401611804962158e-01 9.037052094936370850e-02
8.927142620086669922e-01 3.040845990180969238e-01 -1.912583597004413605e-03
7.516071200370788574e-01 3.576108515262603760e-01 2.597668394446372986e-02
6.887086033821105957e-01 -3.573661148548126221e-01 3.205669298768043518e-02
6.778393387794494629e-01 -3.402317464351654053e-01 9.642623364925384521e-02
7.412241101264953613e-01 -3.352771699428558350e-01 -7.410223037004470825e-02
6.630221009254455566e-01 -3.191084563732147217e-01 1.754772067070007324e-01
6.983423233032226562e-01 -3.204394280910491943e-01 -1.046396791934967041e-01
6.429010033607482910e-01 -2.727093398571014404e-01 2.203125655651092529e-01
7.009095549583435059e-01 -2.907215058803558350e-01 -1.976989656686782837e-01
6.211814880371093750e-01 -2.344808876514434814e-01 2.844678759574890137e-01
6.892034411430358887e-01 -2.295331656932830811e-01 -2.282647639513015747e-01
6.147431731224060059e-01 -1.653504669666290283e-01 3.026181161403656006e-01
6.932014822959899902e-01 -1.644360125064849854e-01 -2.772849202156066895e-01
5.901781916618347168e-01 -9.345259517431259155e-02 3.376370668411254883e-01
6.726232171058654785e-01 -6.478725373744964600e-02 -3.153128027915954590e-01
5.744469165802001953e-01 -1.608363538980484009e-02 3.461700677871704102e-01
6.830284595489501953e-01 3.796151280403137207e-02 -3.371228277683258057e-01
5.840971469879150391e-01 6.358836591243743896e-02 3.366127014160156250e-01
6.129695773124694824e-01 8.940165489912033081e-02 -3.094424903392791748e-01
5.848594903945922852e-01 1.517488807439804077e-01 3.171165585517883301e-01
6.915267705917358398e-01 1.801256239414215088e-01 -2.799758911132812500e-01
6.087830662727355957e-01 2.522152662277221680e-01 2.421142160892486572e-01
6.660435795783996582e-01 2.482905685901641846e-01 -2.418991625308990479e-01
5.990217924118041992e-01 3.227544128894805908e-01 1.579825580120086670e-01
7.440043091773986816e-01 2.989058792591094971e-01 -1.714011728763580322e-01
6.817775368690490723e-01 3.886187970638275146e-01 1.313230991363525391e-01
7.554704546928405762e-01 3.092043399810791016e-01 -1.561577916145324707e-01
6.334025859832763672e-01 3.741030395030975342e-01 2.539962530136108398e-01
7.169741988182067871e-01 1.886284351348876953e-01 -6.161925569176673889e-02
4.352132081985473633e-01 5.421056151390075684e-01 3.661003112792968750e-01
5.810977816581726074e-01 6.321234107017517090e-01 -6.815130263566970825e-02
4.818281531333923340e-01 5.787970423698425293e-01 2.020398080348968506e-01
6.203794479370117188e-01 6.211790442466735840e-01 5.391460284590721130e-02
6.737689971923828125e-01 4.795133769512176514e-01 1.126783639192581177e-01
7.293669581413269043e-01 -3.620644509792327881e-01 -7.766438648104667664e-04
7.029747962951660156e-01 -3.481416404247283936e-01 1.426605284214019775e-01
7.682949900627136230e-01 -3.542655408382415771e-01 -4.659514501690864563e-02
7.216551899909973145e-01 -3.623925745487213135e-01 7.634473592042922974e-02
7.709839940071105957e-01 -3.391311466693878174e-01 -1.209912896156311035e-01
6.858450770378112793e-01 -3.092031478881835938e-01 2.248831242322921753e-01
7.292723655700683594e-01 -3.256782889366149902e-01 -1.369771063327789307e-01
6.754236817359924316e-01 -2.569802403450012207e-01 2.712615132331848145e-01
7.675944566726684570e-01 -2.870183289051055908e-01 -2.034449875354766846e-01
6.558411717414855957e-01 -2.143408060073852539e-01 3.195002973079681396e-01
7.278205156326293945e-01 -2.600375711917877197e-01 -1.765581369400024414e-01
6.491928696632385254e-01 -1.417090594768524170e-01 3.436054587364196777e-01
7.461617588996887207e-01 -1.923574507236480713e-01 -2.637513279914855957e-01
